ply
format ascii 1.0
comment Created by CloudCompare v2.10.1 (Zephyrus)
comment Created 02/11/19 10:48 P.M.
obj_info Generated by CloudCompare!
element vertex 631
property float x
property float y
property float z
property uchar red
property uchar green
property uchar blue
property float nx
property float ny
property float nz
property float scalar_curvature
end_header
-0.0901727 -0.0481011 0.514912 0 0 0 -0.5948 -0.739873 -0.314325 0.131203 
0.00133768 -0.0525499 0.537481 0 0 0 0.0731008 -0.95544 -0.285991 0.111629 
-0.0927344 -0.0487975 0.517281 0 0 0 0.518523 -0.083816 -0.850946 0.256383 
0.00138713 -0.0520458 0.537496 0 0 0 0.0931394 -0.974859 -0.202423 0.105016 
-0.122456 -0.0808943 0.510299 0 0 0 0.999511 0.00100859 0.0312662 0.056386 
0.00181885 -0.052044 0.537196 0 0 0 -0.0907678 0.993963 0.0616324 0.108248 
-0.0944661 -0.0435047 0.518466 0 0 0 0.041092 0.760911 -0.647554 0.140529 
-0.128975 -0.0765605 0.510252 0 0 0 0.00413544 -0.778841 -0.627208 0.118764 
0.00292133 -0.0516947 0.537068 0 0 0 0.0161147 0.995886 0.0891678 0.0995891 
-0.128922 -0.0760217 0.510267 0 0 0 0.0351784 -0.769703 -0.637432 0.126052 
-0.147125 -0.028451 0.527967 0 0 0 0.328049 0.891275 -0.31307 0.169079 
-0.0718101 -0.0800439 0.536018 0 0 0 -0.84141 0.0960383 -0.531794 0.160295 
-0.660649 -0.321377 1.43261 0 0 0 -0.849306 0.347514 -0.397382 0.0873163 
-0.000744978 -0.0517226 0.538584 0 0 0 0.311442 0.947358 -0.074277 0.0732027 
-0.0840219 -0.0477558 0.514476 0 0 0 0.6224 -0.538064 -0.568425 0.193958 
-0.0658527 -0.0803919 0.543285 0 0 0 -0.0361296 0.995207 0.0908715 0.0363131 
-0.148136 -0.0261109 0.529553 0 0 0 0.568062 -0.818297 0.087726 0.142247 
-0.0659032 -0.0811162 0.543306 0 0 0 -0.0361367 0.995403 0.0886993 0.0362861 
0.00182518 -0.0526048 0.537633 0 0 0 0.121987 -0.927921 -0.352253 0.0988352 
0.0018746 -0.0521008 0.537647 0 0 0 0.0720951 -0.94248 -0.326394 0.108499 
-0.0635368 -0.0804453 0.542623 0 0 0 -0.0437279 -0.982106 -0.183185 0.0132945 
0.00297025 -0.0525122 0.538211 0 0 0 0.197703 -0.953547 -0.227291 0.102212 
-0.00295344 -0.051197 0.540411 0 0 0 0.160426 0.973924 -0.160426 0.0581462 
-0.0753461 -0.08024 0.544086 0 0 0 0.997062 0.0592848 0.0485057 0.0594829 
-0.0028232 -0.0512136 0.540539 0 0 0 0.2997 0.937771 -0.1754 0.0831235 
-0.162458 -0.0587116 0.539407 0 0 0 0.874182 0.485056 -0.0229692 0.196757 
-0.148147 -0.0250691 0.529555 0 0 0 -0.386352 0.913577 -0.126924 0.143345 
-0.00141386 -0.0519037 0.540809 0 0 0 0.549137 0.835405 0.0233968 0.082857 
-0.161357 -0.0587001 0.539393 0 0 0 0.835322 0.487656 -0.253827 0.139787 
-0.147673 -0.0197621 0.527928 0 0 0 -0.0705686 -0.0115859 -0.99744 0.121828 
-0.0885749 -0.0490091 0.518624 0 0 0 -0.0687411 0.996201 -0.0534653 0.154937 
-0.162728 -0.0577651 0.54033 0 0 0 0.801771 0.42579 -0.419363 0.188519 
-0.162948 -0.056794 0.541077 0 0 0 0.775255 0.523821 -0.352975 0.165758 
-0.0021361 -0.0511899 0.541986 0 0 0 -0.408434 -0.906862 -0.103839 0.0880539 
-0.0847163 -0.0463179 0.517953 0 0 0 -0.642724 0.738745 -0.202884 0.077343 
-0.147803 -0.019057 0.528574 0 0 0 0.215226 0.0249709 -0.976245 0.0961235 
-0.0815798 -0.0443231 0.515705 0 0 0 -0.165621 0.985617 0.0335874 0.172602 
-0.12625 -0.0737772 0.510367 0 0 0 0.276122 -0.560133 -0.78103 0.114957 
-0.000692308 -0.052383 0.54001 0 0 0 0.509585 0.860179 0.0203834 0.0721535 
0.00108653 -0.0529627 0.540023 0 0 0 -0.0508072 -0.992434 -0.111776 0.114996 
-0.0755304 -0.0836776 0.550415 0 0 0 -0.975836 -0.0595466 -0.210236 0.0395861 
-0.122704 -0.0736624 0.510339 0 0 0 -0.412277 -0.594407 -0.69044 0.134107 
0.000312869 -0.0521582 0.540317 0 0 0 0.224279 0.973492 -0.0448558 0.11518 
-0.15295 -0.0177096 0.534576 0 0 0 -0.860796 0.195432 -0.469932 0.00837967 
0.00112945 -0.0521895 0.540372 0 0 0 0.0525328 -0.993652 -0.099477 0.123554 
-0.0750566 -0.084354 0.551084 0 0 0 -0.985996 -0.0769385 -0.147959 0.0469913 
0.000349618 -0.0513754 0.540509 0 0 0 0.280871 0.958488 -0.0491209 0.104338 
-0.121416 -0.0751404 0.505425 0 0 0 -0.468262 0.835404 -0.287802 0.180539 
-0.0749556 -0.0837518 0.5506 0 0 0 -0.974032 -0.0804473 -0.211638 0.0419341 
2.07126e-05 -0.0529429 0.541441 0 0 0 0.300407 0.953576 0.0211906 0.108126 
-0.119117 -0.0739655 0.506891 0 0 0 -0.242926 0.965343 -0.0953897 0.0695756 
-0.0754541 -0.0830897 0.550264 0 0 0 -0.979634 -0.0941721 -0.177337 0.0345485 
0.000889078 -0.0522121 0.540685 0 0 0 0.0191288 0.999731 -0.0130881 0.113244 
-0.0748797 -0.0831639 0.550448 0 0 0 -0.976425 -0.0950502 -0.193804 0.034693 
0.00190302 -0.0529949 0.540096 0 0 0 -0.087403 0.995962 0.0205019 0.113373 
0.00277933 -0.052275 0.5409 0 0 0 -0.00968253 0.995149 -0.0979011 0.098851 
-0.175124 -0.305687 1.0704 0 0 0 0.621776 0.724602 0.297231 0.0311503 
-0.120527 -0.0738445 0.5082 0 0 0 -0.332742 0.942977 0.0087894 0.0812451 
-0.0754056 -0.0800424 0.550425 0 0 0 0.993903 0.0479661 0.0992787 0.0309931 
-0.140027 -0.0286104 0.526915 0 0 0 -0.250621 -0.946335 -0.204058 0.117521 
-0.0739376 -0.0474622 0.509793 0 0 0 -0.330154 -0.354497 -0.874832 0.19948 
-0.139182 -0.0286679 0.526723 0 0 0 -0.0818465 -0.978493 -0.189346 0.198134 
0.000935361 -0.052912 0.543714 0 0 0 -0.117727 0.99227 -0.0392423 0.106196 
-0.183176 -0.259302 1.0567 0 0 0 -0.294595 0.921149 -0.254358 0.183273 
-0.0671509 -0.0812496 0.544666 0 0 0 -0.168033 0.979989 0.106707 0.0767279 
-0.148038 -0.0556711 0.547149 0 0 0 -0.60598 0.710516 -0.357708 0.134509 
-0.119792 -0.0739031 0.507409 0 0 0 -0.307228 0.951537 0.0136822 0.0745466 
-0.0645785 -0.0807095 0.546009 0 0 0 -0.141549 -0.975811 -0.166602 0.0191145 
-0.118097 -0.0735829 0.507764 0 0 0 -0.148698 0.98786 -0.0449551 0.0575992 
-0.0645278 -0.0799807 0.545988 0 0 0 -0.141549 -0.975811 -0.166602 0.0191087 
-0.235735 -0.410624 1.20898 0 0 0 -0.0560812 0.965842 0.252988 0.0246752 
-0.233393 -0.410686 1.2092 0 0 0 -0.232627 0.953368 0.192287 0.0508054 
-0.121238 -0.0737834 0.508862 0 0 0 0.378583 -0.921355 -0.0882004 0.100088 
-0.150896 -0.0563828 0.548275 0 0 0 0.765161 0.643838 -0.00137867 0.174353 
-0.0669194 -0.0461357 0.502148 0 0 0 -0.0418716 0.950358 -0.308327 0.142588 
-0.000329696 -0.0673093 0.54574 0 0 0 0.0752426 0.98973 0.121546 0.143826 
-0.144423 -0.0246503 0.520071 0 0 0 0.283725 -0.920307 -0.269323 0.126553 
-0.121178 -0.0732426 0.508906 0 0 0 -0.408698 0.910465 -0.0633954 0.0707444 
-0.0654709 -0.0801265 0.548097 0 0 0 -0.044316 -0.903778 -0.425702 0.0474203 
-0.0662037 -0.0455675 0.504075 0 0 0 0.0866674 0.99614 0.0139096 0.114048 
-0.14402 -0.0255035 0.521103 0 0 0 0.386277 -0.882274 -0.269041 0.123016 
-0.000158757 -0.0669734 0.545778 0 0 0 0.0752426 0.98973 0.121546 0.143874 
-0.149123 -0.0556838 0.548218 0 0 0 0.718192 0.678881 0.15271 0.154228 
-0.121967 -0.073723 0.509589 0 0 0 -0.0877885 -0.816001 -0.571345 0.146119 
-0.121907 -0.0731804 0.509634 0 0 0 -0.344472 0.93423 -0.0924847 0.0982646 
-0.144043 -0.0248865 0.521459 0 0 0 0.386277 -0.882274 -0.269041 0.123029 
-0.093753 -0.060635 0.536396 0 0 0 -0.437939 0.877353 -0.196114 0.144427 
-0.0655289 -0.0456979 0.505951 0 0 0 0.274228 0.960424 0.0488351 0.0872441 
-0.120525 -0.0735951 0.510022 0 0 0 0.375472 -0.920114 -0.111404 0.0916034 
-0.144309 -0.0251088 0.521674 0 0 0 0.386277 -0.882274 -0.269041 0.123032 
-0.0961504 -0.0631923 0.53857 0 0 0 0.099956 0.983904 -0.148128 0.0927281 
-0.117065 -0.073732 0.50826 0 0 0 -0.213018 0.976033 0.0445292 0.0953246 
-0.0960998 -0.0624666 0.538549 0 0 0 0.055559 0.992125 -0.112252 0.130603 
-0.0129331 -0.0516543 0.543978 0 0 0 0.0574737 0.992831 -0.104805 0.0631686 
-0.144695 -0.0255555 0.522793 0 0 0 -0.235209 -0.925156 -0.297932 0.0869611 
-0.0125999 -0.0518327 0.544735 0 0 0 -0.0994276 0.970363 -0.220251 0.0412998 
-0.0966228 -0.061765 0.538743 0 0 0 0.0418305 0.991496 -0.12323 0.126558 
-0.144815 -0.060627 0.536049 0 0 0 -0.776482 -0.171707 -0.606294 0.131501 
-0.117706 -0.0736667 0.508635 0 0 0 -0.213018 0.976033 0.0445292 0.0952358 
-0.0130312 -0.0517243 0.545712 0 0 0 -0.0440304 0.957346 -0.285568 0.0383853 
-0.0940832 -0.0632596 0.538226 0 0 0 -0.0207439 0.994616 -0.101536 0.121428 
-0.143157 -0.0599942 0.538146 0 0 0 -0.860936 -0.220868 -0.458264 0.163411 
-0.116031 -0.0738811 0.508747 0 0 0 -0.213018 0.976033 0.0445292 0.0953784 
-0.0120209 -0.0518881 0.544946 0 0 0 -0.137487 0.967547 -0.212012 0.0523676 
-0.143851 -0.0613852 0.539606 0 0 0 0.763904 0.637809 -0.0982372 0.103386 
-0.0110613 -0.0526156 0.544289 0 0 0 -0.0758927 0.955734 -0.284276 0.122709 
-0.0965618 -0.0611648 0.538742 0 0 0 0.0440008 0.991711 -0.12072 0.125952 
-0.144301 -0.0248964 0.523872 0 0 0 0.116974 -0.992609 -0.0323072 0.183517 
-0.122103 -0.0833283 0.512723 0 0 0 0.989946 0.121289 0.0727732 0.0589307 
-0.0101572 -0.0509837 0.543848 0 0 0 -0.0811837 0.987147 -0.137659 0.147126 
-0.122689 -0.0827264 0.513074 0 0 0 0.972391 0.198525 0.122655 0.0656837 
-0.14419 -0.0594562 0.53908 0 0 0 -0.864478 -0.131771 -0.485092 0.124045 
-0.0126921 -0.0520791 0.546046 0 0 0 -0.0801435 0.975284 -0.205907 0.0487315 
-0.122539 -0.0821589 0.512709 0 0 0 0.97993 0.129425 0.151612 0.0782414 
-0.0698666 -0.0440276 0.507044 0 0 0 -0.381952 0.890231 -0.248195 0.185442 
-0.0113328 -0.0519065 0.545999 0 0 0 -0.0777997 0.974348 -0.21117 0.0553283 
-0.141466 -0.0609564 0.535979 0 0 0 -0.850881 -0.222166 -0.47607 0.12878 
-0.0118229 -0.0512669 0.54604 0 0 0 -0.0320142 0.978211 -0.205128 0.0514094 
-0.0706175 -0.0439918 0.50741 0 0 0 -0.189637 0.963878 -0.187021 0.194561 
-0.0119937 -0.0510556 0.54663 0 0 0 0.0304896 0.967129 -0.252453 0.044417 
-0.128534 -0.0760884 0.510947 0 0 0 0.20963 -0.84606 -0.490141 0.0971874 
-0.130295 -0.0762366 0.513586 0 0 0 0.620153 0.781306 -0.0705046 0.0793444 
-0.066233 -0.044972 0.506694 0 0 0 0.354641 0.934019 0.0428688 0.0873772 
-0.129715 -0.0763092 0.513631 0 0 0 0.341986 0.929816 -0.13597 0.0776797 
-0.0119466 -0.0515556 0.547329 0 0 0 0.0404373 0.995632 -0.0841533 0.0806698 
-0.126259 -0.0767451 0.513959 0 0 0 -0.15554 -0.839917 -0.519949 0.105808 
-0.0114093 -0.0511099 0.547158 0 0 0 0.0406875 0.995194 -0.0890726 0.0810956 
-0.0910619 -0.0551961 0.539044 0 0 0 -0.169389 -0.971758 -0.164295 0.0375293 
-0.126756 -0.0761178 0.513877 0 0 0 -0.0744184 -0.977199 -0.198856 0.0775281 
-0.011245 -0.0513236 0.546227 0 0 0 -0.125962 0.9849 -0.118764 0.0681842 
-0.144981 -0.0261024 0.529877 0 0 0 -0.342384 0.91918 -0.194633 0.152252 
-0.143064 -0.0535903 0.53632 0 0 0 -0.0443266 -0.953654 -0.297621 0.103395 
-0.237061 -0.260416 1.25221 0 0 0 -0.110738 -0.898522 -0.42473 0.074808 
-0.0965189 -0.0528884 0.535611 0 0 0 0.0869998 0.993153 -0.0779608 0.153497 
-0.14199 -0.0287254 0.527887 0 0 0 0.270482 0.889155 -0.369111 0.0902767 
-0.144815 -0.0530371 0.538353 0 0 0 0.263474 -0.954597 -0.139019 0.159524 
-0.0106233 -0.0513651 0.546747 0 0 0 -0.0485422 0.992292 -0.114018 0.0850379 
-0.123444 -0.0796473 0.51242 0 0 0 -0.936648 -0.0978188 -0.336336 0.138266 
-0.0953737 -0.0528752 0.536083 0 0 0 0.130479 0.989561 -0.061198 0.126212 
-0.0095958 -0.0515224 0.546154 0 0 0 0.224003 0.974588 0.00117279 0.0991527 
-0.124721 -0.0768454 0.512317 0 0 0 -0.624726 -0.463938 -0.628076 0.132068 
-0.0785194 -0.0479353 0.510917 0 0 0 0.0265061 0.99769 0.0625544 0.118019 
-0.0100726 -0.0519854 0.547162 0 0 0 -0.00522418 0.997818 -0.0658246 0.0768054 
-0.123138 -0.0764481 0.51059 0 0 0 -0.504305 -0.688603 -0.521059 0.156977 
-0.141565 -0.0540838 0.536428 0 0 0 -0.281366 -0.894715 -0.346869 0.0834466 
-0.141578 -0.0287244 0.528693 0 0 0 0.250395 0.880129 -0.40333 0.0705708 
-0.0100119 -0.0514107 0.54718 0 0 0 -0.00522418 0.997818 -0.0658246 0.0775106 
-0.122588 -0.0773384 0.511524 0 0 0 -0.695311 -0.596217 -0.401332 0.162879 
-0.123438 -0.076972 0.511765 0 0 0 -0.596132 -0.585999 -0.548846 0.152252 
-0.145732 -0.0560764 0.540185 0 0 0 -0.523246 -0.0485772 -0.850796 0.203109 
-0.142687 -0.0258966 0.531668 0 0 0 0.402385 0.734147 -0.546915 0.0352219 
-0.0964341 -0.0532825 0.53905 0 0 0 -0.202539 -0.194597 -0.959745 0.160501 
-0.122913 -0.0782658 0.513075 0 0 0 -0.823106 -0.385385 -0.417104 0.161935 
-0.144952 -0.056145 0.540426 0 0 0 -0.884595 0.0706014 -0.460986 0.136603 
-0.1225 -0.0799671 0.514516 0 0 0 -0.839487 0.0993561 -0.534219 0.13935 
-0.00871711 -0.0511763 0.544105 0 0 0 0.214948 0.972856 0.0857306 0.141117 
-0.0793676 -0.0465913 0.514147 0 0 0 -0.285683 0.953581 -0.0952277 0.174694 
-0.0963732 -0.0526815 0.53905 0 0 0 -0.3165 0.227708 -0.920857 0.153026 
-0.133415 -0.0306529 0.529494 0 0 0 0.0353129 -0.682245 -0.73027 0.213397 
-0.122401 -0.0791965 0.51426 0 0 0 -0.868325 0.0340787 -0.494823 0.129783 
-0.0092235 -0.0510973 0.544409 0 0 0 0.273319 0.957264 -0.0945606 0.147942 
-0.079317 -0.0458669 0.514165 0 0 0 -0.399757 0.88186 -0.250035 0.151777 
-0.144253 -0.0554666 0.541328 0 0 0 0.913831 -0.402728 0.0521807 0.235622 
-0.137204 -0.0288382 0.528844 0 0 0 0.2715 -0.95092 -0.148456 0.161794 
-0.00814197 -0.0517813 0.544718 0 0 0 -0.295038 -0.950678 -0.0957235 0.120813 
-0.146186 -0.0554358 0.542537 0 0 0 0.361405 -0.918278 -0.161718 0.185199 
-0.0785939 -0.0466268 0.513811 0 0 0 -0.301421 0.918685 -0.25527 0.151225 
-0.0897843 -0.05508 0.53602 0 0 0 -0.127098 -0.930687 -0.343028 0.0650159 
-0.145442 -0.0555165 0.54297 0 0 0 0.516392 -0.817233 -0.25587 0.18351 
-0.125874 -0.0761592 0.512572 0 0 0 -0.166869 -0.857971 -0.485839 0.131882 
-0.00762669 -0.0529584 0.545307 0 0 0 0.145592 0.973568 -0.175977 0.0900091 
-0.135653 -0.0267567 0.528967 0 0 0 0.565947 -0.761544 -0.31584 0.226514 
-0.0770718 -0.0460288 0.514393 0 0 0 -0.136217 0.971343 -0.194778 0.161078 
-0.14467 -0.0537515 0.539944 0 0 0 0.380347 -0.916983 -0.120328 0.197565 
-0.125335 -0.0762348 0.512771 0 0 0 -0.448034 -0.838307 -0.310657 0.124826 
-0.00670096 -0.0520572 0.545027 0 0 0 -0.00900763 0.999847 0.0150127 0.0900407 
-0.173804 -0.290162 1.20049 0 0 0 -0.804334 0.593906 -0.0179971 0.0853178 
-0.0755124 -0.0460855 0.513367 0 0 0 -0.090214 0.927723 -0.362203 0.157165 
-0.125714 -0.0768207 0.514141 0 0 0 -0.150161 -0.864521 -0.479641 0.119297 
-0.00705596 -0.0530161 0.545464 0 0 0 -0.0204179 0.996181 -0.0848956 0.0787999 
-0.144197 -0.0546777 0.541344 0 0 0 0.421793 -0.900661 -0.104404 0.205513 
-0.123623 -0.0764516 0.512936 0 0 0 0.400777 0.891104 0.212867 0.127646 
-0.00621795 -0.051759 0.545345 0 0 0 -0.0430466 0.998472 0.0346473 0.0846435 
-0.0934196 -0.0561402 0.543456 0 0 0 0.53821 -0.756096 -0.372357 0.171044 
-0.133759 -0.0290679 0.527711 0 0 0 0.200896 0.96246 -0.182513 0.186709 
-0.144633 -0.0523844 0.540609 0 0 0 0.823939 -0.538787 -0.175594 0.226292 
-0.123882 -0.0776625 0.514494 0 0 0 0.905527 0.422757 -0.0360077 0.187818 
-0.13999 -0.0541761 0.543154 0 0 0 -0.0959524 0.528454 -0.843522 0.119693 
-0.0062026 -0.0525855 0.54632 0 0 0 0.0644036 0.987131 -0.146372 0.0684007 
-0.0779373 -0.0467496 0.51542 0 0 0 -0.268196 0.962786 0.03337 0.182493 
-0.00670912 -0.0523606 0.547491 0 0 0 0.0599881 0.992634 -0.105262 0.0594948 
-0.134005 -0.0260078 0.530143 0 0 0 0.425318 0.51071 -0.747181 0.199649 
-0.0778865 -0.0460232 0.515438 0 0 0 -0.21626 0.955035 -0.202827 0.183795 
-0.00515982 -0.0515411 0.547188 0 0 0 -0.00560593 0.987766 -0.155845 0.0564303 
-0.0923912 -0.0553235 0.542323 0 0 0 0.150452 -0.954637 -0.256967 0.20304 
-0.122807 -0.0829428 0.516353 0 0 0 -0.866056 -0.256328 -0.429236 0.0972325 
-0.0901749 -0.0544492 0.543711 0 0 0 0.922481 0.375223 -0.090758 0.251841 
-0.0757248 -0.0444572 0.516009 0 0 0 0.0628077 0.971673 -0.227832 0.111087 
-0.130831 -0.0520915 0.536991 0 0 0 0.271022 0.951914 -0.142854 0.14898 
-0.135808 -0.0305528 0.533439 0 0 0 0.461796 -0.207733 -0.862318 0.146191 
-0.00577697 -0.0587088 0.550756 0 0 0 -0.81369 0.398053 -0.42363 0.0990395 
-0.0113327 -0.0516002 0.548052 0 0 0 0.0199835 0.998125 0.0578471 0.0750015 
-0.124647 -0.0803989 0.515325 0 0 0 -0.607425 -0.285378 -0.741346 0.125091 
-0.133058 -0.0339632 0.534659 0 0 0 -0.319514 -0.653626 -0.686064 0.197156 
-0.0817309 -0.0560864 0.538664 0 0 0 -0.119909 -0.922062 -0.367998 0.0825385 
-0.123546 -0.0815229 0.51544 0 0 0 -0.787576 -0.372045 -0.491229 0.124221 
-0.0120476 -0.051081 0.548653 0 0 0 0.0720531 0.996913 0.0311871 0.0647095 
-0.123821 -0.253189 1.26638 0 0 0 -0.130793 -0.955184 -0.265549 0.0473527 
-0.14506 -0.256258 1.28843 0 0 0 -0.133145 -0.955747 -0.262336 0.0432704 
-0.130925 -0.0290815 0.531562 0 0 0 -0.251257 0.700043 -0.668438 0.160222 
-0.0133888 -0.0517357 0.549976 0 0 0 0.247888 -0.921341 -0.299471 0.0740521 
-0.124268 -0.0841715 0.518039 0 0 0 -0.764112 -0.232828 -0.601601 0.159131 
-0.137175 -0.0528932 0.542523 0 0 0 0.192255 0.254977 -0.947642 0.263687 
-0.0116717 -0.0519747 0.549614 0 0 0 0.154883 -0.957097 -0.2449 0.101382 
-0.145448 -0.259664 1.31877 0 0 0 0.0957769 0.987329 0.12652 0.0277798 
-0.124132 -0.0833749 0.518151 0 0 0 -0.770491 0.225699 -0.596157 0.175368 
-0.132312 -0.0292413 0.532786 0 0 0 -0.467493 0.635053 -0.614946 0.170388 
-0.0844103 -0.0540538 0.536628 0 0 0 0.0672889 -0.935448 -0.347 0.0889224 
-0.132259 -0.0284717 0.532805 0 0 0 -0.448624 0.524775 -0.723428 0.147281 
-0.124989 -0.0833889 0.518571 0 0 0 -0.933209 -0.17333 -0.314767 0.182547 
-0.135462 -0.0522385 0.542266 0 0 0 0.210154 -0.677164 -0.705184 0.256217 
-0.0106665 -0.0511053 0.548756 0 0 0 0.0912618 0.995083 0.0384839 0.0601642 
-0.133611 -0.0530549 0.541114 0 0 0 -0.0552916 0.998378 0.0135621 0.183617 
-0.0100591 -0.0511533 0.549413 0 0 0 0.14708 0.98787 0.0497988 0.048967 
-0.13413 -0.0283534 0.534085 0 0 0 0.438023 0.0931668 -0.894123 0.2225 
-0.132489 -0.0261482 0.534939 0 0 0 0.192525 -0.880324 -0.433548 0.262683 
-0.00952446 -0.0517511 0.549934 0 0 0 -0.0849212 -0.984369 -0.154294 0.0466466 
-0.0644135 -0.258601 1.13001 0 0 0 0.948629 -0.297687 -0.107167 0.0459741 
-0.134021 -0.0522436 0.539837 0 0 0 -0.0749404 -0.990366 -0.116446 0.246002 
-0.124802 -0.0825423 0.517827 0 0 0 -0.563063 -0.414454 -0.714974 0.184245 
-0.131016 -0.0259178 0.533625 0 0 0 -0.449221 0.606198 -0.656297 0.189692 
-0.0625783 -0.260275 1.12879 0 0 0 0.954016 -0.281363 -0.103384 0.0448286 
-0.00946395 -0.0512064 0.549979 0 0 0 -0.0849212 -0.984369 -0.154294 0.0466447 
-0.133559 -0.0523128 0.541093 0 0 0 0.22512 0.971373 0.0758691 0.203626 
-0.131731 -0.0262049 0.535247 0 0 0 0.0743552 -0.991784 -0.104097 0.260563 
-0.12315 -0.0839595 0.516686 0 0 0 -0.891232 -0.203418 -0.405372 0.08525 
-0.133305 -0.0531384 0.542981 0 0 0 0.322381 0.940389 -0.108352 0.213844 
-0.0842048 -0.0551934 0.53972 0 0 0 -0.20668 -0.945803 -0.25048 0.0653778 
-0.130924 -0.0262634 0.535297 0 0 0 -0.644937 -0.737734 -0.199513 0.164835 
-0.123098 -0.0832197 0.516704 0 0 0 -0.833237 -0.288129 -0.471908 0.147549 
-0.144988 -0.0251834 0.528789 0 0 0 0.312461 -0.949832 0.0136935 0.15054 
-0.0831361 -0.0554424 0.539811 0 0 0 -0.199745 -0.934471 -0.294729 0.0699673 
-0.123985 -0.0825592 0.517629 0 0 0 -0.612488 -0.507876 -0.605739 0.226632 
-0.0125068 -0.0518441 0.552071 0 0 0 0.177268 -0.917537 -0.355953 0.0878611 
-0.0813701 -0.0566758 0.54094 0 0 0 -0.0537336 -0.98034 -0.189859 0.0738811 
-0.0813095 -0.0560789 0.540939 0 0 0 -0.0537336 -0.98034 -0.189859 0.0738811 
-0.144659 -0.0257542 0.530114 0 0 0 -0.0331768 0.909045 -0.415374 0.137423 
-0.125282 -0.080869 0.516761 0 0 0 -0.441822 -0.601878 -0.665234 0.115523 
-0.0110015 -0.0520018 0.550701 0 0 0 0.028848 -0.951984 -0.304785 0.07061 
-0.0652668 -0.0490831 0.515932 0 0 0 -0.643958 -0.576704 -0.502724 0.260644 
-0.0827532 -0.0564885 0.542779 0 0 0 -0.177453 -0.971521 -0.157026 0.0433298 
-0.144757 -0.0250837 0.530247 0 0 0 0.270271 -0.959397 -0.0806969 0.14601 
-0.00933299 -0.0520588 0.551846 0 0 0 -0.140687 -0.935636 -0.323716 0.0742503 
-0.125737 -0.0804132 0.517586 0 0 0 -0.776482 -0.49442 -0.390673 0.111674 
0.0843879 -0.252485 1.14343 0 0 0 0.995613 0.0672562 -0.0650511 0.148885 
-0.124512 -0.0809204 0.516818 0 0 0 -0.432299 -0.632592 -0.642607 0.114973 
-0.0669159 -0.0504505 0.517565 0 0 0 0.248066 0.950242 -0.188422 0.145534 
-0.0884437 -0.0535788 0.542543 0 0 0 0.401115 0.909103 0.112423 0.150904 
-0.00519335 -0.0515742 0.54813 0 0 0 -0.084554 0.990325 -0.110036 0.0750675 
-0.125725 -0.0820613 0.518425 0 0 0 -0.877665 -0.362283 -0.313776 0.162521 
0.0713071 -0.292272 1.09051 0 0 0 -0.245 0.957487 0.152297 0.0701109 
-0.00535463 -0.0513418 0.549912 0 0 0 -0.891869 -0.166232 -0.420638 0.162336 
-0.0673788 -0.0498695 0.517595 0 0 0 0.573879 0.815962 -0.0697769 0.161036 
-0.144999 -0.0249569 0.531397 0 0 0 0.0318091 0.945367 -0.324453 0.10381 
-0.00559014 -0.0538112 0.550742 0 0 0 -0.670654 -0.0983235 -0.735225 0.0969572 
-0.0946843 -0.0607221 0.544254 0 0 0 -0.755307 0.645928 -0.110857 0.169686 
-0.123782 -0.0810017 0.517102 0 0 0 -0.645206 -0.574453 -0.503699 0.117529 
-0.135963 -0.0637262 0.547561 0 0 0 0.211794 -0.965418 -0.152024 0.121514 
-0.0664083 -0.0499425 0.518463 0 0 0 0.135944 0.981003 -0.138394 0.171702 
-0.00548288 -0.053158 0.551472 0 0 0 -0.895208 0.00394365 -0.445632 0.152732 
-0.143405 -0.0257452 0.531983 0 0 0 0.132284 0.934173 -0.331393 0.0807299 
-0.0658844 -0.0500232 0.518272 0 0 0 -0.0276187 0.999388 -0.0214812 0.128798 
-0.0637279 -0.35678 1.19002 0 0 0 -0.869826 -0.400638 -0.287911 0.12545 
-0.0656592 -0.354968 1.1908 0 0 0 0.919608 -0.311318 -0.239586 0.141643 
-0.0658096 -0.357143 1.19146 0 0 0 -0.867246 -0.403902 -0.291114 0.125452 
-0.00865366 -0.0520875 0.550781 0 0 0 -0.0393707 -0.948707 -0.313696 0.0791568 
-0.127937 -0.0761044 0.516454 0 0 0 0.265145 0.885315 -0.381989 0.115621 
-0.144181 -0.0249383 0.532798 0 0 0 -0.012136 0.991844 -0.126877 0.0425747 
-0.0669098 -0.0498881 0.51828 0 0 0 0.348737 0.937151 -0.0114132 0.151498 
-0.0084144 -0.0518881 0.550521 0 0 0 -0.0595958 -0.957337 -0.282763 0.0706438 
-0.14357 -0.0250335 0.532892 0 0 0 0.0211502 0.991832 -0.125788 0.0405908 
-0.0663579 -0.0494286 0.518477 0 0 0 0.13599 0.981332 -0.13599 0.171807 
-0.00889846 -0.0517947 0.550696 0 0 0 0.061535 -0.938737 -0.339097 0.0546611 
-0.128798 -0.0760579 0.517603 0 0 0 0.838024 0.145807 -0.52579 0.0944289 
-0.144888 -0.0247936 0.533053 0 0 0 -0.0141271 0.994329 -0.10541 0.0421898 
-0.0658341 -0.04951 0.518287 0 0 0 -0.0275635 0.999432 -0.0193965 0.127455 
-0.00883784 -0.0512491 0.550741 0 0 0 0.0183038 -0.962777 -0.269675 0.0348104 
-0.129227 -0.0764252 0.518734 0 0 0 0.941465 -0.165337 -0.293781 0.10913 
-0.00860331 -0.0513642 0.55076 0 0 0 0.0359616 -0.961042 -0.274052 0.0364177 
-0.124585 -0.0798443 0.515371 0 0 0 -0.662575 -0.0439825 -0.747703 0.11808 
-0.143504 -0.0244415 0.532941 0 0 0 0.0211502 0.991832 -0.125788 0.0405978 
-0.00514632 -0.0525713 0.551613 0 0 0 -0.863536 0.0148653 -0.504067 0.162526 
-0.0666967 -0.0475788 0.516946 0 0 0 -0.413916 -0.784005 -0.462612 0.2202 
-0.14271 -0.0252604 0.532049 0 0 0 0.245205 0.887196 -0.390842 0.0620044 
-0.124848 -0.0784523 0.515258 0 0 0 -0.587113 -0.052345 -0.807811 0.19017 
-0.00561822 -0.0522267 0.55208 0 0 0 -0.938193 0.263475 -0.224442 0.149594 
-0.142182 -0.0253125 0.532447 0 0 0 0.142081 0.928352 -0.343476 0.0769189 
-0.0060417 -0.051599 0.551759 0 0 0 -0.902281 0.250878 -0.350642 0.104344 
-0.133162 -0.0534554 0.551787 0 0 0 0.576668 0.814703 0.0609256 0.126642 
-0.141665 -0.0253579 0.532893 0 0 0 0.254674 0.792146 -0.554658 0.0302155 
-0.125802 -0.0792337 0.515931 0 0 0 -0.366628 -0.294208 -0.882624 0.173115 
-0.00543293 -0.0516494 0.552108 0 0 0 -0.817112 -0.566589 -0.106326 0.118626 
-0.12508 -0.0800204 0.515942 0 0 0 -0.607013 -0.239982 -0.75759 0.0973654 
-0.00463477 -0.0515399 0.544138 0 0 0 0.113458 -0.967581 -0.225641 0.05477 
-0.124336 -0.0800888 0.516131 0 0 0 -0.416816 -0.498545 -0.760077 0.124422 
-0.141221 -0.024957 0.533708 0 0 0 0.0145663 0.989391 -0.144543 0.0200372 
-0.00431187 -0.0527813 0.545136 0 0 0 0.0200142 -0.978341 -0.206029 0.0987171 
-0.00308805 -0.0516545 0.545652 0 0 0 -0.0707372 -0.953023 -0.294524 0.088965 
-0.00140841 -0.051648 0.544003 0 0 0 -0.291838 -0.951418 -0.0981518 0.0840951 
-0.0889294 -0.0551053 0.545189 0 0 0 -0.100235 -0.968097 -0.229653 0.123482 
-0.00188706 -0.0513464 0.54436 0 0 0 -0.0211059 -0.95473 -0.296724 0.0642773 
-0.0781629 -0.0365843 0.518735 0 0 0 0.540202 -0.752366 -0.376999 0.140533 
-0.12415 -0.0785528 0.515705 0 0 0 -0.596659 0.128807 -0.79209 0.142582 
-0.00197994 -0.0532117 0.546451 0 0 0 0.0230935 -0.966279 -0.256459 0.107832 
-0.123397 -0.0800139 0.515214 0 0 0 -0.678536 -0.0952589 -0.728364 0.151757 
-0.123369 -0.0792939 0.515366 0 0 0 -0.590756 0.0207526 -0.806583 0.110593 
-0.094176 -0.0544739 0.550529 0 0 0 0.111819 0.984726 -0.133461 0.118596 
-0.124805 -0.0777207 0.515322 0 0 0 0.69096 -0.362713 -0.625311 0.181899 
-0.123591 -0.0765838 0.51547 0 0 0 0.97732 0.0176837 -0.211026 0.202054 
0.0472596 -0.314097 1.23429 0 0 0 -0.9123 -0.39297 -0.115253 0.0772429 
0.0857861 -0.292526 1.23341 0 0 0 0.993465 0.00542877 -0.114004 0.0130995 
-0.00469798 -0.0526726 0.546205 0 0 0 0.0803866 0.992944 -0.0871798 0.0999013 
-0.126729 -0.0810771 0.522655 0 0 0 -0.945962 -0.178304 -0.270858 0.18737 
-0.12348 -0.0760248 0.515288 0 0 0 0.815694 -0.3514 -0.459523 0.188459 
0.0862323 -0.359234 1.29349 0 0 0 0.981945 -0.147597 -0.118321 0.0313027 
0.0876876 -0.357354 1.2934 0 0 0 0.975119 -0.174442 -0.136793 0.0321151 
-0.0031094 -0.052374 0.546078 0 0 0 -0.0792295 -0.978789 -0.188932 0.0900358 
-0.123743 -0.0771487 0.515842 0 0 0 -0.950386 -0.00619547 -0.311013 0.227079 
-0.00351892 -0.052778 0.546762 0 0 0 0.131896 0.989797 0.0539055 0.0841976 
-0.123928 -0.0778765 0.516563 0 0 0 -0.842116 0.306649 -0.443629 0.135686 
-0.125257 -0.0843015 0.519768 0 0 0 -0.957029 0.179692 -0.22761 0.137848 
-0.00393824 -0.0518674 0.54634 0 0 0 0.0594531 0.998187 -0.00938734 0.0934453 
-0.123918 -0.0770156 0.516584 0 0 0 0.941765 -0.322777 0.0943093 0.199011 
-0.124666 -0.0834432 0.518872 0 0 0 -0.948594 -0.0137477 -0.316198 0.151826 
-0.125157 -0.0793729 0.516676 0 0 0 -0.813681 0.103348 -0.572051 0.107433 
-0.124087 -0.0835017 0.519031 0 0 0 0.898144 -0.0225531 -0.439122 0.203718 
-0.0844508 -0.0583582 0.548924 0 0 0 0.0129341 0.999904 -0.00497465 0.143738 
-0.125675 -0.0798541 0.517632 0 0 0 0.97965 -0.0613033 0.191122 0.11463 
-0.124857 -0.0840532 0.519449 0 0 0 0.980656 0.019823 0.194732 0.176227 
-0.00034702 -0.0525255 0.544407 0 0 0 0.21352 0.975919 0.0446341 0.14274 
-0.0856224 -0.0584143 0.549254 0 0 0 0.0420977 0.99905 0.0112945 0.148846 
-0.124437 -0.0794606 0.517016 0 0 0 -0.769491 -0.0237411 -0.638216 0.208558 
-0.124473 -0.0843461 0.519776 0 0 0 0.974214 -0.132332 0.182744 0.156704 
-0.000472546 -0.052118 0.544641 0 0 0 -0.147198 -0.956127 -0.253287 0.123343 
-0.0845639 -0.055495 0.550085 0 0 0 -0.0637355 0.99405 -0.0883351 0.14313 
-0.123387 -0.0772481 0.516917 0 0 0 -0.908959 0.378138 -0.175513 0.14272 
-0.141337 -0.0246733 0.534369 0 0 0 -0.00544051 0.993437 -0.114251 0.0189672 
0.000332745 -0.0525617 0.543913 0 0 0 0.125456 0.991217 0.0418187 0.138765 
-0.124277 -0.0841118 0.519608 0 0 0 0.995616 0.00750195 0.0932385 0.159222 
-0.123284 -0.0766871 0.516772 0 0 0 0.95507 -0.26742 0.127782 0.118899 
0.000585489 -0.0522518 0.544504 0 0 0 -0.097353 -0.977227 -0.188545 0.118233 
-0.125127 -0.082831 0.518828 0 0 0 0.909048 0.399536 -0.118329 0.168081 
-0.196963 -0.227521 1.07539 0 0 0 -0.788887 -0.475914 -0.388797 0.107784 
-0.123209 -0.0761296 0.516755 0 0 0 0.946931 -0.321435 -0.00124106 0.105344 
-0.19482 -0.22748 1.07528 0 0 0 -0.805802 -0.18362 -0.562999 0.140056 
-0.124716 -0.0828911 0.519345 0 0 0 0.995757 0.0605156 -0.0693179 0.223901 
-0.140457 -0.024916 0.53342 0 0 0 0.0785851 0.954616 -0.287286 0.0111314 
-0.121015 -0.0774001 0.511315 0 0 0 0.953433 0.296595 0.0547365 0.150911 
-0.000114894 -0.0520689 0.544999 0 0 0 -0.0730654 -0.989283 -0.126415 0.136045 
-0.124136 -0.0829497 0.519504 0 0 0 0.914172 -0.0383661 -0.403506 0.222276 
-0.121833 -0.0773918 0.511601 0 0 0 0.89605 0.39321 0.206106 0.157935 
-0.133951 -0.0252428 0.530162 0 0 0 0.110899 0.924159 -0.365556 0.182817 
0.000479249 -0.0518736 0.545125 0 0 0 -0.0579012 -0.984321 -0.166614 0.108246 
-0.125573 -0.0823289 0.52064 0 0 0 0.953133 0.176108 0.246013 0.122478 
0.00266406 -0.0520145 0.543834 0 0 0 -0.101343 -0.98601 -0.132342 0.0695395 
-0.124991 -0.0823878 0.5208 0 0 0 0.96499 -0.189342 0.181507 0.114534 
-0.125141 -0.0821589 0.519055 0 0 0 0.931683 0.32352 -0.165231 0.160993 
-0.121949 -0.0760847 0.512906 0 0 0 0.997954 -0.03069 -0.0560886 0.221824 
-0.0789201 -0.055566 0.537754 0 0 0 -0.178934 -0.908982 -0.376476 0.0921637 
0.00169988 -0.05292 0.545058 0 0 0 0.0239717 -0.987405 -0.156387 0.103212 
-0.136876 -0.0256944 0.531708 0 0 0 0.0506841 0.967943 -0.246003 0.137642 
-0.125825 -0.0814214 0.518982 0 0 0 0.902354 0.406555 0.143073 0.152366 
0.00179042 -0.0521291 0.54552 0 0 0 0.0520295 -0.97646 -0.209328 0.074301 
-0.136036 -0.0258283 0.531487 0 0 0 -0.052291 0.974073 -0.220109 0.16729 
-0.0775281 -0.0565249 0.539227 0 0 0 -0.103384 -0.954016 -0.281363 0.102102 
-0.123793 -0.250932 1.26643 0 0 0 -0.13774 -0.958935 -0.247933 0.0480294 
-0.136286 -0.0257815 0.531851 0 0 0 -0.052291 0.974073 -0.220109 0.167561 
-0.124508 -0.0822374 0.519494 0 0 0 0.874275 0.143063 -0.463871 0.278636 
-0.126906 -0.07371 0.510693 0 0 0 0.4384 -0.581755 -0.685104 0.0743924 
-0.137356 -0.0247694 0.534311 0 0 0 0.118278 0.981588 -0.149982 0.0348906 
-0.0801005 -0.053933 0.53646 0 0 0 -0.191611 -0.865963 -0.461946 0.0799498 
-6.85863e-05 -0.0531 0.546599 0 0 0 0.0716248 -0.992515 -0.0989105 0.105009 
-0.124459 -0.0815396 0.519474 0 0 0 0.018557 0.994435 0.103701 0.231292 
-0.13823 -0.0252243 0.534896 0 0 0 0.16352 0.979891 -0.114341 0.0392343 
-0.125217 -0.0811183 0.519607 0 0 0 0.648972 0.697282 -0.304357 0.202898 
-0.138167 -0.0246091 0.534895 0 0 0 0.0401222 0.99655 -0.0726538 0.0213155 
-0.000130298 -0.0532572 0.547898 0 0 0 0.17644 -0.978441 -0.107345 0.136048 
-0.0721864 -0.0536224 0.536284 0 0 0 0.130068 0.94534 -0.299022 0.126669 
-0.125303 -0.0815416 0.519854 0 0 0 0.607106 0.65728 -0.446549 0.144895 
-0.126757 -0.0755706 0.514199 0 0 0 -0.0867501 -0.954251 -0.286146 0.114454 
-0.228296 -0.247308 1.17662 0 0 0 -0.00570009 0.983836 0.178983 0.0368034 
-0.0741829 -0.053914 0.538765 0 0 0 0.252919 -0.76504 -0.592238 0.138656 
-0.226667 -0.247661 1.17786 0 0 0 -0.138472 0.97679 0.163422 0.0884532 
-0.225904 -0.247833 1.17783 0 0 0 0.139809 -0.968405 -0.206508 0.0877017 
-0.0954877 -0.0184676 0.513188 0 0 0 -0.499443 -0.839489 -0.214047 0.0843602 
-0.224064 -0.247983 1.17792 0 0 0 0.120739 -0.969728 -0.212247 0.08418 
-0.22989 -0.246924 1.17521 0 0 0 -0.0101921 0.986373 0.164207 0.037448 
-0.227344 -0.245689 1.17673 0 0 0 -0.107403 0.987873 0.112124 0.0950132 
-0.124432 -0.0757307 0.511654 0 0 0 -0.450917 -0.76246 -0.464035 0.132983 
-0.132377 -0.0256349 0.534124 0 0 0 0.418874 -0.875282 -0.241716 0.170541 
-0.124322 -0.0751786 0.511477 0 0 0 -0.423907 -0.689888 -0.58682 0.0960195 
-0.132312 -0.0250474 0.534173 0 0 0 0.0556492 -0.996229 -0.0665608 0.151555 
-0.000269495 -0.0526155 0.546246 0 0 0 -0.283189 0.957807 0.049086 0.104475 
0.0846918 -0.249367 1.14345 0 0 0 0.415225 0.101376 -0.904052 0.0818836 
-0.0946825 -0.018537 0.512724 0 0 0 -0.499116 -0.83894 -0.216941 0.0842979 
-0.124409 -0.0824466 0.52096 0 0 0 -0.934216 0.297441 -0.196898 0.147905 
-0.130951 -0.0253319 0.533673 0 0 0 -0.0533276 0.982413 -0.178944 0.167381 
-0.123771 -0.0757937 0.511286 0 0 0 -0.577103 -0.73078 -0.364572 0.1057 
0.084929 -0.201704 1.12652 0 0 0 -0.29847 -0.898379 -0.322228 0.0308525 
-0.000299927 -0.0524573 0.546322 0 0 0 0.157182 -0.978982 -0.129953 0.120151 
-0.0780635 -0.0567609 0.540299 0 0 0 0.0176749 -0.976832 -0.213277 0.0840261 
0.0838666 -0.198572 1.12682 0 0 0 -0.29847 -0.898379 -0.322228 0.0307927 
-0.132435 -0.0253748 0.534958 0 0 0 0.168415 -0.98302 -0.0728605 0.20185 
-0.0946635 -0.0178038 0.513051 0 0 0 -0.499116 -0.83894 -0.216941 0.0842895 
-0.12605 -0.0838802 0.52226 0 0 0 0.9726 0.0325405 0.230194 0.0987417 
0.082048 -0.207183 1.14649 0 0 0 0.0440375 -0.979538 -0.196384 0.0592577 
0.0835665 -0.207393 1.147 0 0 0 0.0619142 -0.977274 -0.202739 0.0584337 
-0.123895 -0.0752638 0.512171 0 0 0 0.540648 0.836069 -0.0932152 0.224203 
-0.000431471 -0.0529514 0.546798 0 0 0 -0.342243 0.93824 0.0507508 0.0944683 
-0.125208 -0.0812955 0.52226 0 0 0 -0.838526 0.415345 -0.352651 0.215786 
-0.125835 -0.0738603 0.511093 0 0 0 -0.0436558 -0.804111 -0.592874 0.123875 
0.0893448 -0.207387 1.18576 0 0 0 -0.299705 0.942511 0.147818 0.12302 
-0.130736 -0.0254959 0.534593 0 0 0 -0.417813 -0.808412 -0.414611 0.128953 
-0.000719808 -0.052527 0.546827 0 0 0 0.208007 -0.971959 -0.109676 0.11573 
0.000285596 -0.0526765 0.546318 0 0 0 -0.0292507 0.999568 -0.00302594 0.0972073 
-0.125714 -0.0750555 0.512499 0 0 0 -0.159286 -0.826205 -0.540383 0.181223 
-0.132374 -0.0176287 0.533377 0 0 0 0.271431 0.41397 -0.868881 0.218092 
0.000631854 -0.0525774 0.54692 0 0 0 0.00317634 0.996311 0.0857611 0.119432 
-0.161548 -0.0438325 0.535876 0 0 0 0.590511 -0.803152 -0.0790221 0.150291 
-0.125175 -0.0751311 0.512696 0 0 0 -0.494934 -0.815462 -0.300103 0.223722 
-0.126374 -0.077508 0.520014 0 0 0 0.613809 0.754375 0.232716 0.228514 
-0.000662081 -0.0519583 0.546826 0 0 0 -0.115622 0.989214 0.0899285 0.101846 
-0.125902 -0.0756174 0.513015 0 0 0 0.106831 -0.791719 -0.601472 0.156795 
-0.127111 -0.0795359 0.521563 0 0 0 -0.879299 -0.373816 -0.295118 0.170147 
-0.16086 -0.0429025 0.537313 0 0 0 0.384327 -0.921586 -0.0545238 0.1658 
-0.125337 -0.0756907 0.5131 0 0 0 0.0876022 -0.828631 -0.552899 0.223602 
-0.129011 -0.077552 0.521491 0 0 0 0.223363 0.96268 0.152827 0.132472 
-0.160398 -0.0427136 0.537197 0 0 0 0.407667 -0.913018 -0.014327 0.167435 
-0.000135629 -0.0523092 0.547447 0 0 0 -0.139835 0.990033 -0.0167802 0.089307 
-0.124264 -0.0759512 0.512905 0 0 0 0.282277 0.958745 0.0335747 0.188924 
-0.161659 -0.0440938 0.538393 0 0 0 -0.409376 0.895419 -0.175033 0.169179 
-0.12904 -0.0773934 0.521514 0 0 0 0.306498 0.950273 0.055144 0.123237 
-0.123562 -0.075902 0.512981 0 0 0 0.481475 0.853455 -0.19949 0.200517 
0.00266718 -0.0522738 0.546525 0 0 0 -0.193045 -0.975189 -0.108354 0.0921169 
-0.129709 -0.0760144 0.521592 0 0 0 0.293285 -0.885873 -0.359463 0.134492 
-0.123531 -0.0753553 0.513165 0 0 0 0.322341 0.691657 -0.646302 0.224628 
-0.128879 -0.0767512 0.521082 0 0 0 -0.218324 -0.880723 -0.420311 0.125733 
0.0032128 -0.0529441 0.547583 0 0 0 0.178602 0.98171 -0.0659268 0.0767541 
-0.130034 -0.0776564 0.522725 0 0 0 0.162106 0.978826 -0.124983 0.122924 
0.00327047 -0.052376 0.547583 0 0 0 0.203711 0.978975 -0.0104765 0.0976603 
-0.128615 -0.0774762 0.522345 0 0 0 0.194733 0.931637 -0.30681 0.164838 
-0.129535 -0.0758704 0.515673 0 0 0 0.67026 0.67349 -0.311711 0.160907 
-0.124881 -0.0775511 0.520329 0 0 0 -0.907332 0.13042 -0.399675 0.116805 
-0.129473 -0.0753126 0.515719 0 0 0 0.629833 0.653099 -0.420443 0.147572 
-0.124765 -0.0766238 0.519894 0 0 0 -0.843122 -0.316366 -0.434808 0.125285 
-0.0029048 -0.0531575 0.549755 0 0 0 0.0350206 0.794268 -0.606557 0.139145 
-0.163015 -0.0508425 0.545045 0 0 0 -0.0707529 0.648328 -0.758067 0.100976 
-0.13027 -0.0752568 0.516573 0 0 0 0.757855 0.326634 -0.564771 0.101542 
-0.00436224 -0.0516021 0.548106 0 0 0 0.175633 0.96004 -0.217891 0.0787052 
-0.127875 -0.0755463 0.5165 0 0 0 0.306989 0.881648 -0.358406 0.135079 
-0.00394653 -0.052149 0.549584 0 0 0 -0.220601 -0.946804 -0.234303 0.202149 
-0.123979 -0.077563 0.520348 0 0 0 -0.962522 -0.0359243 -0.268813 0.121851 
-0.163515 -0.0478068 0.546724 0 0 0 -0.0718774 0.253463 -0.964671 0.0548738 
-0.00357357 -0.0520188 0.549645 0 0 0 -0.0438063 -0.959985 -0.276606 0.187386 
-0.125419 -0.07945 0.521244 0 0 0 -0.853712 -0.0689158 -0.516165 0.138898 
-0.00300317 -0.0520788 0.549763 0 0 0 0.0559577 -0.695884 -0.715971 0.182273 
-0.125219 -0.0786097 0.521726 0 0 0 -0.835202 -0.0934391 -0.541947 0.161452 
-0.129939 -0.0735503 0.516492 0 0 0 0.62475 0.60791 -0.490033 0.123921 
-0.158853 -0.048759 0.545964 0 0 0 0.0894593 0.230578 -0.968933 0.0645794 
-0.00409325 -0.051944 0.549868 0 0 0 -0.368403 -0.917505 -0.149882 0.203788 
-0.0825479 -0.263899 1.33159 0 0 0 0.0106837 -0.972213 -0.233853 0.012427 
-0.0825179 -0.261523 1.33165 0 0 0 -0.0200869 -0.977171 -0.211504 0.0131464 
-0.157739 -0.0487474 0.54595 0 0 0 0.107812 0.312787 -0.943685 0.108999 
-0.124314 -0.0786215 0.521744 0 0 0 -0.868635 -0.143564 -0.474196 0.153617 
-0.129362 -0.0736087 0.516654 0 0 0 0.710201 0.321936 -0.626077 0.0663735 
-0.129243 -0.075971 0.516958 0 0 0 0.746315 0.383772 -0.543814 0.0957694 
-0.125685 -0.0761945 0.521183 0 0 0 -0.493502 -0.631615 -0.597929 0.155717 
-0.000917949 -0.0523705 0.549008 0 0 0 -0.342017 0.866545 -0.363489 0.147479 
-0.129181 -0.0754112 0.517004 0 0 0 0.753992 0.25343 -0.606027 0.0952636 
-0.126164 -0.0777573 0.521953 0 0 0 -0.785979 0.0351511 -0.617253 0.240719 
-0.00101062 -0.0526272 0.549969 0 0 0 -0.204847 0.168313 -0.964214 0.189293 
-0.128736 -0.0754972 0.51765 0 0 0 0.874096 0.0974356 -0.475881 0.0990341 
-0.158225 -0.0467804 0.547677 0 0 0 0.0766589 0.0313114 -0.996566 0.0761504 
-0.126153 -0.0768865 0.521974 0 0 0 -0.0675957 0.957819 -0.279311 0.120579 
-0.0018683 -0.0522003 0.549963 0 0 0 -0.105025 0.525127 -0.844519 0.112031 
-0.156625 -0.0487358 0.545935 0 0 0 0.126666 0.291998 -0.947994 0.0960552 
-0.128299 -0.075669 0.518268 0 0 0 0.909844 -0.227824 -0.346815 0.118355 
-0.126367 -0.0812595 0.524186 0 0 0 -0.949217 -0.0766126 -0.305152 0.19919 
-0.128594 -0.0737628 0.518562 0 0 0 0.917739 -0.0464846 -0.394455 0.114124 
-0.127243 -0.0805779 0.524822 0 0 0 -0.777168 -0.561904 -0.283326 0.157774 
-0.128535 -0.0731838 0.518561 0 0 0 0.698672 0.551934 -0.455221 0.139421 
-0.069136 -0.287346 1.32284 0 0 0 0.740487 -0.660031 -0.126643 0.0896937 
-0.158242 -0.0457074 0.547702 0 0 0 0.0320142 0.205128 -0.978211 0.0601031 
-0.12328 -0.0754582 0.514695 0 0 0 0.72595 -0.578465 -0.371988 0.149012 
-0.00500075 -0.0523127 0.550464 0 0 0 -0.718256 -0.136454 -0.682268 0.130803 
-0.128469 -0.0816919 0.526965 0 0 0 0.966263 0.108497 0.233588 0.168687 
-0.122766 -0.0735387 0.514862 0 0 0 0.496573 -0.799945 -0.336903 0.141817 
-0.00433997 -0.0520307 0.550253 0 0 0 -0.418929 -0.368341 -0.829954 0.180589 
-0.127692 -0.0817477 0.527086 0 0 0 0.857827 -0.505023 0.0953141 0.151177 
-0.122144 -0.0735911 0.514792 0 0 0 0.632645 -0.736255 -0.240185 0.133509 
-0.00454061 -0.0524079 0.550987 0 0 0 -0.673148 -0.00414671 -0.739496 0.163477 
-0.126454 -0.0802052 0.527019 0 0 0 0.910044 -0.408231 0.0718813 0.160828 
-0.157047 -0.0445874 0.547355 0 0 0 -0.183777 -0.442535 -0.877718 0.137682 
-0.00332744 -0.0521967 0.550268 0 0 0 0.0411072 0.404441 -0.91364 0.138229 
-0.126047 -0.0818616 0.522944 0 0 0 -0.61314 0.413745 -0.672959 0.217189 
-0.119998 -0.073717 0.513275 0 0 0 -0.507264 0.84838 -0.151444 0.175774 
0.0694455 -0.32072 1.42644 0 0 0 -0.72613 -0.671783 -0.146434 0.0662397 
-0.00423948 -0.0514754 0.550541 0 0 0 -0.373564 0.902659 -0.213673 0.233343 
0.0695757 -0.318492 1.42571 0 0 0 -0.72613 -0.671783 -0.146434 0.0662138 
0.0678891 -0.318853 1.42814 0 0 0 -0.72613 -0.671783 -0.146434 0.0660056 
0.0711896 -0.325442 1.42848 0 0 0 0.691238 0.71998 0.0617947 0.0569841 
-0.12546 -0.0819209 0.523105 0 0 0 -0.810397 0.263886 -0.523088 0.195996 
-0.119417 -0.0737727 0.513363 0 0 0 -0.502538 0.845517 -0.180437 0.162008 
-0.00451688 -0.0512807 0.550352 0 0 0 -0.555375 0.115157 -0.823588 0.214426 
-0.118077 -0.0738636 0.512701 0 0 0 -0.18906 0.981965 -0.00114582 0.117984 
-0.00379427 -0.0515786 0.55018 0 0 0 0.124708 0.872953 -0.471595 0.202459 
-0.125416 -0.0807654 0.52343 0 0 0 -0.815229 -0.124855 -0.56552 0.215751 
-0.00395598 -0.0513444 0.550394 0 0 0 -0.115199 0.986914 -0.112824 0.220175 
-0.121523 -0.0736436 0.514725 0 0 0 0.412147 -0.884861 -0.217153 0.123298 
-0.125779 -0.0813585 0.524846 0 0 0 -0.0276435 0.972331 -0.231965 0.134929 
-0.00347619 -0.0526168 0.551379 0 0 0 -0.0812132 -0.0995148 -0.991716 0.180802 
-0.00466072 -0.0518879 0.551381 0 0 0 -0.721454 -0.149736 -0.67608 0.143923 
-0.00444755 -0.0518197 0.551219 0 0 0 -0.649312 -0.265122 -0.712814 0.192032 
-0.125597 -0.0802256 0.524481 0 0 0 0.985931 0.0989508 0.134716 0.181547 
-0.0418038 -0.0440076 0.493486 0 0 0 0.0852448 -0.989074 -0.120277 0.146156 
-0.00461256 -0.0513476 0.551351 0 0 0 -0.654638 0.499814 -0.567129 0.201439 
-0.0988413 -0.0746169 0.514275 0 0 0 -0.950171 -0.182465 -0.252748 0.100605 
-0.12554 -0.0802171 0.527037 0 0 0 -0.850131 0.502417 -0.15765 0.13091 
-0.101341 -0.074368 0.516253 0 0 0 0.949893 0.293795 0.106715 0.0764193 
-0.00322133 -0.0513562 0.551589 0 0 0 0.0438216 0.614915 -0.787374 0.128733 
-0.128268 -0.0797583 0.523195 0 0 0 0.826358 0.558042 0.0756425 0.150482 
-0.00238286 -0.0521249 0.550205 0 0 0 -0.00415077 0.695945 -0.718083 0.123318 
-0.127249 -0.0798892 0.525017 0 0 0 0.960853 0.164755 0.222749 0.164816 
-0.137896 -0.0469371 0.537972 0 0 0 0.826919 0.560171 0.0491378 0.121462 
-0.0338209 -0.0471347 0.490369 0 0 0 -0.260265 -0.950709 -0.168565 0.0969852 
-0.10082 -0.0744439 0.516536 0 0 0 0.966682 0.215535 0.138097 0.0808992 
-0.00203287 -0.0525063 0.551017 0 0 0 0.540588 0.681175 -0.493726 0.238741 
-0.130107 -0.077403 0.523327 0 0 0 0.0160548 0.996469 -0.0824147 0.0865495 
-0.00129475 -0.0522593 0.550104 0 0 0 -0.202763 0.360947 -0.910277 0.175183 
-0.129565 -0.0768892 0.523934 0 0 0 0.00788311 0.987641 -0.156536 0.0885227 
-0.0978482 -0.0747732 0.515143 0 0 0 -0.968699 -0.076246 -0.236238 0.100533 
-0.00181999 -0.0526427 0.550786 0 0 0 -0.745504 -0.549748 -0.37683 0.233378 
-0.128827 -0.0769283 0.523476 0 0 0 0.0897009 0.984318 -0.151894 0.124111 
-0.137531 -0.0475582 0.539172 0 0 0 0.858773 0.483337 0.169981 0.147348 
-0.00198262 -0.0517845 0.550997 0 0 0 0.302934 0.824044 -0.47873 0.185793 
-0.128491 -0.0776045 0.524455 0 0 0 0.278692 0.79199 -0.543214 0.151936 
-0.00277908 -0.0514552 0.550847 0 0 0 0.0975104 0.589428 -0.801914 0.139101 
-0.125711 -0.0616609 0.504212 0 0 0 0.297024 0.949158 0.104289 0.184095 
-0.128707 -0.0771982 0.524436 0 0 0 0.173057 0.921564 -0.347521 0.0941883 
-0.00173056 -0.0516028 0.550471 0 0 0 -0.064656 0.656618 -0.751447 0.147152 
-0.0410507 -0.0441173 0.495022 0 0 0 -0.083005 -0.982827 -0.164807 0.0871669 
-0.000962116 -0.0518457 0.55053 0 0 0 0.136381 0.882889 -0.44934 0.149599 
-0.129727 -0.076329 0.52485 0 0 0 0.0396302 0.976344 -0.212562 0.0767372 
-0.126753 -0.061218 0.506987 0 0 0 -0.27186 -0.903752 -0.330641 0.144836 
-0.00116786 -0.0516652 0.550538 0 0 0 0.0429739 0.849775 -0.525391 0.132626 
-0.128903 -0.0763584 0.524043 0 0 0 0.0992979 0.979494 -0.175304 0.0825008 
-0.128442 -0.0764352 0.524748 0 0 0 0.0649626 0.956606 -0.284052 0.0641451 
-0.124213 -0.0629304 0.507609 0 0 0 -0.0841521 -0.968377 -0.234872 0.144102 
-0.126353 -0.077727 0.523363 0 0 0 -0.139966 0.829483 -0.540711 0.212694 
-0.127267 -0.0777173 0.524596 0 0 0 0.456441 0.603572 -0.65373 0.172315 
-0.124153 -0.0623909 0.507654 0 0 0 0.0293993 -0.939499 -0.341287 0.231157 
-0.126484 -0.0771685 0.524182 0 0 0 0.275958 0.934336 -0.225529 0.179723 
-0.0315314 -0.0496124 0.49627 0 0 0 -0.0556381 -0.94326 -0.327359 0.17517 
-0.126911 -0.0790538 0.525096 0 0 0 -0.921429 -0.143581 -0.361044 0.206282 
-0.125957 -0.0605503 0.507092 0 0 0 0.912972 -0.0276658 -0.407083 0.167114 
-0.128581 -0.0770362 0.525083 0 0 0 0.0570931 0.922784 -0.381063 0.101876 
-0.128312 -0.0771423 0.526619 0 0 0 0.1778 0.980921 0.0786188 0.121488 
-0.0355536 -0.048778 0.498741 0 0 0 -0.657693 0.280039 -0.699299 0.17396 
-0.127504 -0.0771713 0.525865 0 0 0 0.133295 0.987328 0.0861111 0.147413 
-0.0355051 -0.0480917 0.498766 0 0 0 -0.223803 0.0130255 -0.974548 0.257758 
-0.126675 -0.0766155 0.525268 0 0 0 0.24335 0.961689 -0.12623 0.136603 
0.329578 -0.331393 1.46423 0 0 0 -0.00103634 0.997999 0.063217 0.110055 
-0.0361388 -0.0488585 0.501188 0 0 0 -0.553025 0.388922 -0.736819 0.132995 
-0.130477 -0.0415612 0.537191 0 0 0 0.827735 0.127457 -0.546452 0.129768 
-0.128236 -0.076547 0.526548 0 0 0 0.0866764 0.990422 0.107479 0.0985922 
-0.0361675 -0.0495716 0.501574 0 0 0 -0.764655 0.433905 -0.476477 0.146795 
-0.134527 -0.0385098 0.536472 0 0 0 0.355004 0.931048 0.0843971 0.170465 
-0.12761 -0.0766028 0.526578 0 0 0 0.13024 0.985763 0.106343 0.102788 
-0.125928 -0.0772331 0.524491 0 0 0 0.457383 0.845465 -0.275662 0.179891 
-0.135445 -0.037996 0.535733 0 0 0 -0.65985 -0.599712 -0.452707 0.212808 
-0.0360607 -0.0474575 0.500844 0 0 0 -0.507945 0.3054 -0.805433 0.276425 
-0.0360696 -0.0481886 0.50163 0 0 0 -0.639954 0.449472 -0.623245 0.136644 
-0.12602 -0.0766663 0.52515 0 0 0 0.336258 0.931916 -0.135876 0.203315 
-0.0306005 -0.0491325 0.499192 0 0 0 0.0545429 0.987575 -0.147382 0.161532 
-0.134472 -0.0377327 0.536492 0 0 0 0.532096 0.84493 -0.0544666 0.218001 
-0.13209 -0.0382532 0.535809 0 0 0 0.307068 0.856397 -0.415082 0.102199 
-0.132039 -0.0375202 0.535787 0 0 0 0.748302 0.320241 -0.580939 0.17038 
-0.125946 -0.0779679 0.527057 0 0 0 0.966907 -0.0533723 -0.249484 0.225227 
-0.131919 -0.0382608 0.538159 0 0 0 0.379471 0.847954 -0.370102 0.0617377 
-0.13112 -0.0383129 0.538119 0 0 0 0.430279 0.76076 -0.485905 0.0921039 
-0.125603 -0.0767508 0.526076 0 0 0 0.231601 0.972723 0.0130647 0.124798 
-0.130399 -0.0383594 0.538381 0 0 0 0.454541 0.787763 -0.415719 0.0815077 
-0.12843 -0.0738624 0.520452 0 0 0 0.876878 -0.412208 -0.247325 0.13679 
-0.128258 -0.054607 0.510015 0 0 0 -0.0776377 0.911222 -0.404533 0.0784609 
0.402775 -0.324486 1.64024 0 0 0 0.0275165 -0.918526 -0.394403 0.0707237 
-0.133721 -0.0354771 0.53777 0 0 0 0.695003 0.712635 0.0955078 0.171011 
-0.132644 -0.0364183 0.54049 0 0 0 0.152965 0.830168 -0.536119 0.062128 
-0.132655 -0.0356399 0.540866 0 0 0 0.241278 0.828338 -0.505609 0.0751432 
-0.127399 -0.0734164 0.521599 0 0 0 0.998399 -0.0410301 -0.038926 0.184618 
-0.132189 -0.0357284 0.542823 0 0 0 -0.0777181 0.854899 -0.51294 0.0744823 
-0.132134 -0.0349402 0.542843 0 0 0 0.131332 0.899557 -0.416592 0.103514 
-0.11582 -0.0542791 0.506374 0 0 0 0.70008 -0.00974266 -0.713998 0.118808 
-0.115769 -0.0537551 0.506389 0 0 0 0.710831 0.0383083 -0.702318 0.136284 
-0.0762958 -0.0554226 0.540673 0 0 0 0.00107518 -0.994546 -0.104293 0.0994042 
-0.129908 -0.0623073 0.51327 0 0 0 0.0167802 -0.990033 -0.139835 0.033857 
-0.127079 -0.0617556 0.512848 0 0 0 -0.101531 0.994568 -0.0229264 0.0435344 
-0.000982748 -0.0527957 0.55214 0 0 0 0.745039 0.665568 -0.0439928 0.127571 
-0.0572935 -0.0478164 0.507702 0 0 0 0.0139638 0.995725 -0.0913017 0.100411 
-0.128596 -0.0810063 0.527719 0 0 0 -0.887629 -0.352949 -0.295876 0.149075 
-0.078971 -0.0562977 0.542335 0 0 0 -0.00102047 0.999036 -0.04388 0.0698961 
-0.00216593 -0.0515036 0.551231 0 0 0 0.332473 0.899893 -0.282232 0.179658 
-0.127654 -0.0802539 0.52737 0 0 0 0.966256 0.195845 0.167312 0.186066 
-0.127824 -0.0810651 0.527869 0 0 0 0.967688 -0.179584 0.177 0.18783 
-0.0720663 -0.0576823 0.540471 0 0 0 -0.0497019 -0.988258 -0.144482 0.139163 
0.00140823 -0.053101 0.548732 0 0 0 0.0677467 0.990939 -0.115973 0.108604 
-0.134104 -0.0493772 0.547723 0 0 0 0.932005 0.306011 -0.194226 0.160714 
-0.0745564 -0.0568268 0.539973 0 0 0 0.17856 -0.969874 -0.165714 0.106948 
-0.134049 -0.0485792 0.547743 0 0 0 0.902702 0.426313 -0.0581952 0.134188 
-0.127813 -0.0626874 0.51483 0 0 0 0.151652 -0.976338 -0.154159 0.031967 
0.00046587 -0.052402 0.548736 0 0 0 -0.0907447 0.9913 -0.0953394 0.126418 
-0.135518 -0.0462474 0.547549 0 0 0 -0.120468 0.951829 -0.281974 0.209566 
-0.127526 -0.0809958 0.52889 0 0 0 -0.927932 0.326106 -0.180548 0.224007 
-0.127754 -0.0621148 0.514829 0 0 0 0.136717 -0.983634 -0.117359 0.0325551 
-0.0724114 -0.0569483 0.542783 0 0 0 0.178983 0.983836 0.00570009 0.125156 
-0.000859827 -0.0517978 0.549007 0 0 0 -0.0902888 0.9652 -0.245433 0.099835 
0.00099469 -0.0519562 0.548626 0 0 0 0.117359 0.983634 -0.136717 0.0783817 
-0.000365816 -0.0527107 0.549955 0 0 0 -0.226156 0.60984 -0.759571 0.171984 
-0.127353 -0.0812526 0.529308 0 0 0 -0.86444 0.445043 -0.233836 0.224384 
0.000123516 -0.0522747 0.549604 0 0 0 -0.195384 0.94686 -0.255502 0.165418 
-0.0658093 -0.0554927 0.536588 0 0 0 0.338975 0.937787 0.0751812 0.123712 
-0.127026 -0.081422 0.52943 0 0 0 -0.858356 0.443662 -0.257659 0.22717 
